-0.063274 0.027734 0.022683 1 0
-0.000731 0.048211 0.069198 1 0
-0.060767 -0.009080 0.053085 1 0
0.013252 -0.011876 0.055324 1 0
-0.054508 -0.003813 0.001738 1 0
0.024180 0.068275 0.033462 1 0
-0.029308 0.059849 -0.063260 1 0
-0.016453 0.013881 -0.013236 1 0
-0.042361 -0.059942 -0.026487 1 0
-0.016310 -0.036612 0.047928 1 0
0.035360 -0.044950 0.041474 1 0
-0.000287 -0.049496 -0.063430 1 0
-0.065931 -0.005381 -0.064899 1 0
0.009049 0.027976 0.011980 1 0
-0.005335 0.062592 -0.057507 1 0
-0.004175 0.064646 0.040856 1 0
0.091024 -0.031446 -0.014774 1 0
-0.077068 -0.035324 -0.039060 1 0
0.055150 -0.007045 0.078495 1 0
-0.033779 0.049066 0.026958 1 0
0.044954 -0.033716 0.011894 1 0
0.008785 0.016895 -0.090790 1 0
-0.061655 -0.023085 0.007996 1 0
-0.051274 0.054634 0.032257 1 0
0.044210 -0.062217 -0.018733 1 0
-0.003343 0.069586 0.069452 1 0
-0.064487 0.012217 0.040873 1 0
0.042168 -0.009972 0.047962 1 0
-0.061495 0.059835 0.025843 1 0
0.071795 -0.015260 -0.023346 1 0
0.058733 -0.029135 -0.011721 1 0
0.078178 -0.014786 -0.000320 1 0
2.418463 0.490127 0.033581 2 0
2.805184 0.769746 -0.557435 2 0
2.983722 -0.983118 -0.165216 2 0
3.055291 -0.477796 0.370524 2 0
3.015527 -0.666039 0.126169 2 0
2.449981 0.175666 -0.531892 2 0
3.199806 0.201051 0.586760 2 0
3.266405 0.012518 -0.761892 2 0
3.747710 -0.416960 0.148884 2 0
3.411849 0.516665 -0.702665 2 0
3.733854 0.184758 0.482416 2 0
3.592140 -0.371411 -0.673235 2 1
3.593510 0.125884 0.277346 2 0
2.387269 0.784515 -0.011033 2 0
3.423791 -0.039296 0.066654 2 0
2.425059 -0.206822 -0.263965 2 0
2.407337 -0.015134 0.097093 2 0
2.923991 -0.262388 -0.672982 2 0
3.188203 -0.476377 0.051427 2 0
2.377023 0.498033 -0.382225 2 0
2.610067 0.787375 0.046041 2 0
2.918826 -0.829600 -0.198249 2 0
2.932853 0.719728 -0.347704 2 0
3.471940 0.322667 0.253020 2 0
3.266172 0.207763 0.078446 2 0
2.916963 -0.636281 -0.459655 2 0
3.020822 -0.491739 0.382338 2 0
2.844004 -0.078753 -0.660588 2 0
2.826876 -0.241459 -0.143806 2 0
2.771511 0.362751 -0.669945 2 0
-2.697120 0.342837 0.296855 3 0
-2.575830 -0.752408 -0.225828 3 0
-3.308062 0.919403 -0.091698 3 1
-3.970394 -0.017968 0.097194 3 1
-3.332026 -0.221330 -0.410873 3 0
-2.679173 0.521163 0.033068 3 0
-2.186732 -0.536953 -0.089330 3 0
-3.013009 -0.082401 -0.750346 3 0
-3.464085 0.458797 -0.745681 3 1
-2.632916 0.683901 -0.153258 3 0
-3.315788 0.017903 0.703027 3 0
-2.833584 -0.684569 0.298511 3 0
-2.722148 -0.502344 0.245003 3 0
-2.608905 0.443179 0.447541 3 0
-2.853364 -0.788934 -0.276868 3 0
-2.809655 -0.092462 0.719525 3 0
-3.538035 0.777137 0.091226 3 1
-2.457811 -0.601538 0.548791 3 0
-2.762541 -0.540911 0.251193 3 0
-2.929594 -0.162338 0.427959 3 0
-3.054864 -0.220749 0.858853 3 0
-3.632051 -0.045369 0.497112 3 0
-3.595796 -0.250310 -0.260690 3 0
-2.285053 0.111547 0.652847 3 0
-2.664311 -0.035719 0.357768 3 0
-3.163578 0.286805 -0.843201 3 0
-2.599157 0.438496 0.094013 3 0
-3.381994 0.308228 -0.689706 3 0
-3.961031 -0.111044 0.022821 3 1
-2.827045 -0.074139 0.541360 3 0
0.498135 2.895371 0.786843 4 0
0.218436 3.067538 0.030236 4 0
0.135451 2.129250 0.320246 4 0
0.420118 3.055572 0.230617 4 0
0.659865 3.446317 -0.101455 4 0
0.619487 3.285343 0.278274 4 0
-0.294208 3.296888 -0.174357 4 0
-0.362217 2.657112 0.019960 4 0
-0.561919 3.334167 0.068536 4 0
0.186843 3.706688 -0.259004 4 0
0.450086 2.844335 0.073905 4 0
-0.047549 3.634562 0.613045 4 1
0.432449 3.774495 0.096256 4 0
0.444504 3.491508 -0.745843 4 0
-0.116409 2.618886 0.576378 4 0
-0.601582 3.548497 0.101766 4 1
0.268449 3.662073 -0.103739 4 0
-0.007967 2.918130 0.390422 4 0
-0.811876 2.976918 -0.404710 4 1
-0.003684 2.460306 0.323449 4 0
0.272210 2.287469 -0.243128 4 0
-0.003839 3.107724 -0.876719 4 1
0.175357 3.715249 0.344842 4 0
-0.350178 2.515348 0.695052 4 0
0.016665 2.986915 -0.265349 4 0
0.394178 2.772903 0.583035 4 0
0.715985 3.467443 -0.171137 4 0
0.289940 2.606960 0.767379 4 0
0.854454 2.895231 -0.335877 4 0
0.308424 3.293211 -0.383773 4 0
-0.154151 -2.382802 -0.552876 5 0
0.042376 -3.013402 0.263180 5 0
0.764060 -2.974825 0.304909 5 1
0.273431 -3.549045 0.602433 5 0
0.109072 -2.872739 -0.972276 5 0
-0.609027 -2.316553 0.056040 5 0
0.563714 -2.668933 0.272222 5 0
0.053112 -3.694830 -0.446254 5 0
0.374246 -3.881493 -0.178669 5 0
-0.255410 -2.573785 -0.369218 5 0
-0.058330 -3.539877 0.156878 5 0
0.436804 -2.849058 -0.705822 5 0
-0.185927 -2.834190 -0.871306 5 0
-0.157290 -3.035242 -0.447355 5 0
-0.253287 -2.355499 0.538010 5 0
0.856338 -2.928918 -0.105247 5 0
-0.448767 -2.892567 0.036684 5 0
-0.763126 -3.121529 0.012815 5 1
0.507290 -3.698450 -0.126832 5 0
-0.262387 -2.793600 0.893868 5 1
0.638189 -2.885896 -0.535134 5 0
-0.715655 -3.174318 -0.415442 5 0
-0.148243 -2.348742 -0.198939 5 0
-0.436461 -3.189614 -0.874082 5 0
-0.015747 -3.601469 0.678772 5 0
-0.380327 -2.120669 -0.201018 5 0
-0.078679 -2.969195 -0.085163 5 0
0.725907 -2.642703 -0.392598 5 0
-0.118512 -2.391662 -0.116857 5 0
0.378156 -3.742474 0.426040 5 0
-0.646687 -0.257803 2.879026 6 0
0.862612 -0.257097 3.339622 6 1
0.583950 0.252620 3.164447 6 0
-0.106313 0.539686 3.362430 6 0
-0.447773 -0.165269 2.395462 6 0
0.278688 -0.678510 3.019065 6 0
-0.499959 -0.102398 2.918835 6 0
0.628733 -0.136098 2.961669 6 0
-0.550777 0.820583 2.888145 6 0
0.280057 -0.332023 2.280202 6 0
-0.681490 -0.388565 2.852309 6 0
-0.150402 0.774676 3.236697 6 0
-0.175775 0.816718 2.810907 6 0
0.408490 -0.752991 2.708342 6 0
-0.687687 0.533100 2.864252 6 0
0.187892 0.099277 3.397100 6 0
0.402740 0.309218 2.184721 6 0
-0.333692 0.726125 2.755337 6 0
-0.073884 0.856673 3.449364 6 0
0.074276 -0.449860 2.289555 6 0
-0.234023 0.508787 2.627695 6 0
0.338530 -0.722352 2.402052 6 0
0.777033 0.217745 2.671151 6 0
0.093523 0.595698 3.532532 6 0
0.215945 -0.323846 2.195408 6 0
-0.031152 0.385966 3.106696 6 0
0.260750 0.391448 2.176698 6 0
-0.542543 0.386463 2.917456 6 0
-0.306005 -0.915958 2.884296 6 1
-0.114414 0.026251 3.899389 6 1
-0.749873 0.616942 -2.862605 7 0
-0.108157 -0.083104 -3.909294 7 1
-0.410898 0.467216 -3.643990 7 0
0.662499 -0.378195 -2.900845 7 0
-0.057589 0.548771 -3.072026 7 0
0.645180 -0.276585 -2.877792 7 0
0.257191 0.114881 -2.929682 7 0
-0.169119 0.400328 -2.853299 7 0
0.228327 -0.513736 -3.600658 7 0
-0.512238 0.372109 -3.357134 7 0
-0.510091 -0.617806 -3.543896 7 1
-0.001328 0.275274 -2.367165 7 0
-0.086874 0.138084 -3.152736 7 0
-0.558094 -0.138533 -2.731829 7 0
0.640575 -0.528690 -2.882579 7 0
0.033866 0.301424 -2.949164 7 0
-0.530334 0.571733 -3.122279 7 0
0.488731 0.682260 -3.026392 7 0
-0.320178 -0.530404 -2.430535 7 1
0.143306 0.578726 -3.657507 7 0
-0.365780 -0.491918 -2.483666 7 0
0.660425 -0.259537 -3.671958 7 1
0.647696 0.444220 -2.807808 7 0
-0.110876 0.163359 -3.038903 7 0
-0.694187 0.258777 -2.411717 7 0
0.175738 -0.053478 -2.733752 7 0
0.396046 -0.858377 -3.126866 7 0
-0.406362 -0.334541 -2.885598 7 0
-0.299275 0.071281 -3.642585 7 0
-0.506192 0.433538 -2.608597 7 0
